-0.023844 0.032176 -0.013404 0.025732 -0.075746 0.996795
-0.019552 0.026917 -0.012533 0.027439 -0.066253 0.997426
-0.015712 0.020854 -0.007572 0.024296 -0.057888 0.998027
-0.012154 0.016600 -0.001163 0.021529 -0.037203 0.999076
-0.010460 0.010099 -0.000093 0.016097 -0.006699 0.999848
-0.010452 0.010175 -0.000124 0.016099 -0.006827 0.999847
-0.008703 -0.003975 0.000222 0.011519 0.006491 0.999913
-0.005748 -0.016403 0.005983 0.014528 0.012838 0.999812
-0.000112 -0.020522 0.014316 0.014973 0.021487 0.999657
0.002838 -0.023499 0.017510 0.014570 0.036580 0.999225
0.002699 -0.023612 0.017536 0.014903 0.036871 0.999209
0.003662 -0.026597 0.016050 0.012270 0.048284 0.998758
0.005992 -0.029874 0.016714 0.013104 0.055607 0.998367
0.011058 -0.032380 0.016213 0.006392 0.063423 0.997966
0.013634 -0.038581 0.015896 0.004431 0.076464 0.997062
0.013574 -0.038840 0.015903 0.004576 0.077075 0.997015
0.016031 -0.043525 0.019845 0.005160 0.091635 0.995779
0.020214 -0.051659 0.022472 0.003695 0.119799 0.992791
0.024802 -0.059269 0.025133 0.003755 0.140535 0.990069
0.029696 -0.067524 0.028978 0.006158 0.162563 0.986679
0.029612 -0.067989 0.029043 0.006369 0.163618 0.986503
0.036264 -0.074054 0.032574 0.004815 0.180052 0.983645
0.043650 -0.082527 0.037581 0.001849 0.202478 0.979285
0.054931 -0.090657 0.041143 0.002496 0.222081 0.975025
0.065445 -0.096768 0.046923 -0.000304 0.230004 0.973190
0.064863 -0.095227 0.046883 0.000955 0.226530 0.974004
0.075367 -0.103568 0.052435 -0.004887 0.238265 0.971188
0.087556 -0.109292 0.056957 -0.006823 0.248226 0.968678
0.100202 -0.113423 0.061399 -0.009896 0.264260 0.964401
0.112139 -0.116183 0.064639 -0.016221 0.279769 0.959930
0.111034 -0.116284 0.065044 -0.013764 0.280277 0.959821
0.122269 -0.116853 0.066602 -0.015201 0.290518 0.956749
0.131731 -0.117983 0.067352 -0.015040 0.302376 0.953070
0.143268 -0.119478 0.068173 -0.016921 0.314451 0.949123
0.151147 -0.122355 0.069568 -0.014554 0.323532 0.946105
0.148814 -0.122874 0.069878 -0.009387 0.324941 0.945688
0.157787 -0.126281 0.072581 -0.005071 0.333018 0.942907
0.167028 -0.127939 0.074216 -0.001115 0.342963 0.939348
0.177146 -0.129588 0.075122 0.002087 0.351949 0.936017
0.186143 -0.130368 0.074691 0.001649 0.353676 0.935366
0.184001 -0.130583 0.075076 0.006229 0.354308 0.935108
0.195195 -0.132175 0.074278 0.004567 0.350281 0.936633
0.207763 -0.131968 0.073353 0.002938 0.344123 0.938920
0.218951 -0.127433 0.073094 -0.000390 0.330061 0.943960
0.226064 -0.119312 0.072817 -0.003312 0.306245 0.951947
0.226181 -0.119024 0.072650 -0.003500 0.305578 0.952161
0.233331 -0.110241 0.069721 -0.009862 0.274108 0.961648
0.239075 -0.099691 0.067431 -0.014512 0.237983 0.971161
0.244692 -0.088083 0.064427 -0.018912 0.212963 0.976877
0.248476 -0.075237 0.062377 -0.024838 0.190373 0.981398
0.248541 -0.074527 0.062290 -0.024878 0.188930 0.981675
0.252895 -0.065117 0.058050 -0.027395 0.164227 0.986042
0.256568 -0.055896 0.059366 -0.027670 0.148323 0.988552
0.258463 -0.046838 0.057449 -0.030451 0.137468 0.990038
0.259678 -0.041058 0.052305 -0.032926 0.119680 0.992266
0.260055 -0.040669 0.052162 -0.033633 0.118856 0.992342
0.264278 -0.034078 0.048816 -0.040562 0.096446 0.994511
0.266791 -0.024601 0.049493 -0.041819 0.074608 0.996336
0.268427 -0.012137 0.048717 -0.048118 0.048253 0.997675
0.266483 -0.001825 0.047527 -0.046362 0.035611 0.998290
0.266287 -0.001954 0.047545 -0.045939 0.035924 0.998298
0.264536 0.010377 0.045272 -0.049856 0.026341 0.998409
0.264411 0.022256 0.044117 -0.047993 0.011604 0.998780
0.265306 0.034900 0.041267 -0.045311 -0.008445 0.998937
0.262146 0.045862 0.037621 -0.044091 -0.032021 0.998514
0.262323 0.047242 0.037719 -0.044413 -0.034864 0.998405
0.255995 0.056741 0.036179 -0.043209 -0.050857 0.997771
0.250233 0.063906 0.033579 -0.041392 -0.068928 0.996763
0.243975 0.073501 0.032676 -0.038817 -0.101251 0.994103
0.234792 0.082530 0.030397 -0.040169 -0.120420 0.991910
0.234923 0.082462 0.030330 -0.040405 -0.120179 0.991930
0.224334 0.091127 0.027870 -0.039583 -0.136450 0.989856
0.213697 0.098011 0.025211 -0.039627 -0.153191 0.987402
0.203326 0.102894 0.021859 -0.039626 -0.167563 0.985065
0.191524 0.106685 0.021018 -0.037169 -0.174342 0.983983
0.191066 0.106824 0.021394 -0.036246 -0.174707 0.983953
0.180709 0.111585 0.018951 -0.033037 -0.182014 0.982741
0.171480 0.115385 0.016712 -0.028839 -0.185661 0.982191
0.161881 0.115967 0.013019 -0.024305 -0.188949 0.981686
0.152850 0.116560 0.009071 -0.020907 -0.192435 0.981087
0.152233 0.117392 0.009506 -0.019652 -0.194146 0.980776
0.141008 0.122221 0.007255 -0.014153 -0.201042 0.979480
0.130746 0.124686 0.004383 -0.012366 -0.206982 0.978267
0.121034 0.124435 0.003408 -0.009570 -0.210114 0.977630
0.110850 0.124352 0.003024 -0.009683 -0.212407 0.977133
0.110596 0.124662 0.003390 -0.009164 -0.213123 0.976982
0.101666 0.124572 0.002362 -0.009513 -0.214500 0.976678
0.093253 0.125691 0.002646 -0.012825 -0.217228 0.976037
0.085205 0.124515 0.001795 -0.014593 -0.218540 0.975719
0.076116 0.123636 0.001196 -0.014807 -0.219238 0.975559
0.076446 0.123697 0.001301 -0.015444 -0.219372 0.975519
0.067749 0.123710 -0.000942 -0.014849 -0.221516 0.975044
0.062259 0.122662 -0.003031 -0.013806 -0.219664 0.975478
0.059702 0.123332 -0.005345 -0.011344 -0.219280 0.975596
0.057006 0.123633 -0.006443 -0.000667 -0.224284 0.974523
0.057100 0.123765 -0.006380 -0.000804 -0.224527 0.974468
0.052845 0.124657 -0.008881 0.009036 -0.229913 0.973169
0.050076 0.126672 -0.012762 0.014350 -0.226742 0.973849
0.050117 0.122541 -0.019417 0.016724 -0.217928 0.975822
0.050603 0.117481 -0.023746 0.022543 -0.205449 0.978408
0.050781 0.117380 -0.023777 0.022205 -0.205231 0.978462
0.051785 0.117388 -0.027790 0.025052 -0.202097 0.979045
0.048380 0.108950 -0.031648 0.030143 -0.187588 0.981785
0.044265 0.100649 -0.037410 0.035259 -0.179097 0.983199
0.043441 0.091044 -0.040803 0.039689 -0.169676 0.984700
0.043724 0.090933 -0.040935 0.039192 -0.169355 0.984776
0.045679 0.092637 -0.042097 0.041397 -0.166671 0.985143
0.046543 0.092432 -0.042261 0.043935 -0.158720 0.986346
0.045521 0.092352 -0.045519 0.043831 -0.157042 0.986619
0.044550 0.090114 -0.049522 0.046466 -0.158597 0.986249
0.044887 0.091017 -0.049492 0.045904 -0.160335 0.985995
0.045086 0.092107 -0.052116 0.045830 -0.167233 0.984852
0.047610 0.094083 -0.055647 0.046240 -0.178463 0.982859
0.049975 0.094291 -0.058047 0.047799 -0.186258 0.981338
0.050949 0.088765 -0.061978 0.050149 -0.187387 0.981005
0.051165 0.088243 -0.062072 0.049761 -0.186382 0.981216
0.052499 0.087788 -0.064720 0.046566 -0.193367 0.980021
0.053346 0.088753 -0.066149 0.048218 -0.198469 0.978920
0.054055 0.087326 -0.066644 0.050939 -0.198927 0.978690
0.053947 0.084512 -0.065731 0.052726 -0.194861 0.979413
0.054271 0.084133 -0.065874 0.052161 -0.194120 0.979590
0.054674 0.083414 -0.066239 0.051752 -0.189983 0.980423
0.053960 0.082993 -0.067392 0.050577 -0.187411 0.980979
0.053142 0.082032 -0.069368 0.050962 -0.186187 0.981192
0.052735 0.080626 -0.069261 0.050920 -0.185239 0.981373
0.052765 0.080959 -0.069201 0.050906 -0.185855 0.981258
0.054135 0.081155 -0.068177 0.048715 -0.186340 0.981277
0.054776 0.085061 -0.069524 0.046591 -0.190705 0.980541
0.055897 0.089487 -0.070317 0.043890 -0.197020 0.979416
0.055805 0.093004 -0.070345 0.041600 -0.202290 0.978442
0.056055 0.092351 -0.070537 0.041180 -0.201033 0.978718
0.056725 0.094821 -0.070280 0.039800 -0.203478 0.978270
0.056669 0.093681 -0.068895 0.039386 -0.201306 0.978736
0.057888 0.091261 -0.068839 0.039991 -0.199860 0.979008
0.059259 0.091481 -0.068195 0.041880 -0.201005 0.978695
0.059179 0.091164 -0.068289 0.042056 -0.200363 0.978819
0.059114 0.090580 -0.067396 0.043986 -0.199113 0.978989
0.059900 0.091187 -0.068169 0.044120 -0.199531 0.978898
0.060283 0.091606 -0.067517 0.043483 -0.199741 0.978883
0.061642 0.093458 -0.066113 0.044939 -0.201692 0.978418
0.061284 0.093374 -0.066136 0.045579 -0.201564 0.978414
0.061018 0.092623 -0.066084 0.046374 -0.201782 0.978332
0.059082 0.093058 -0.065446 0.047167 -0.202716 0.978101
0.058752 0.094514 -0.064784 0.046123 -0.204343 0.977812
0.058597 0.094983 -0.065493 0.046089 -0.205971 0.977472
0.058314 0.094891 -0.065605 0.046691 -0.205744 0.977491
0.057812 0.094069 -0.065948 0.047404 -0.205462 0.977516
0.057600 0.095950 -0.065378 0.045094 -0.208022 0.977084
0.057294 0.096949 -0.064051 0.043521 -0.208629 0.977026
0.056969 0.097379 -0.063394 0.041037 -0.209288 0.976993
0.056864 0.097587 -0.063366 0.041265 -0.209664 0.976902
0.054011 0.097593 -0.063582 0.038806 -0.209990 0.976933
0.053803 0.099055 -0.062979 0.034809 -0.210355 0.977005
0.053662 0.099876 -0.062730 0.033348 -0.207731 0.977617
0.053915 0.099217 -0.063591 0.032740 -0.209454 0.977270
0.054055 0.099214 -0.063569 0.032461 -0.209479 0.977274
0.054505 0.100182 -0.062869 0.032057 -0.210980 0.976965
0.054037 0.100833 -0.062217 0.032211 -0.210581 0.977046
0.053407 0.099271 -0.060960 0.032349 -0.207930 0.977609
0.052839 0.099891 -0.060018 0.033553 -0.205689 0.978042
0.052788 0.099601 -0.060003 0.033635 -0.205158 0.978151
0.051546 0.098658 -0.061658 0.034079 -0.199695 0.979265
0.051238 0.099968 -0.064062 0.031421 -0.197062 0.979887
0.051077 0.100272 -0.064829 0.029709 -0.196201 0.980113
0.050746 0.100788 -0.065549 0.028181 -0.197488 0.979900
