0.065342 0.049345 0.449183 231 186 181
-0.023537 -0.003339 0.444405 221 169 164
-0.072670 -0.030351 0.455557 202 153 144
-0.105350 -0.023476 0.442222 220 170 164
-0.016334 -0.010120 0.450572 221 165 159
0.048281 -0.028425 0.470874 221 171 165
0.009256 0.034214 0.434639 202 148 141
0.005885 -0.036704 0.471222 204 153 145
0.059991 -0.015172 0.462266 202 151 141
-0.116130 -0.034713 0.447147 232 183 174
-0.125124 -0.011554 0.423852 215 158 157
0.012077 0.030504 0.436999 215 166 157
0.036817 0.051026 0.437172 227 179 175
0.072379 0.045987 0.447785 207 155 152
0.056328 0.026324 0.445871 222 170 165
0.017474 0.027420 0.437284 235 183 178
-0.074063 -0.021543 0.448760 243 193 187
0.014324 0.016381 0.441154 211 161 157
0.016370 0.020652 0.439484 216 166 160
0.067116 0.011394 0.453751 239 187 182
0.054011 0.031784 0.448369 211 163 157
0.053060 0.010549 0.448998 206 156 141
0.094811 0.016755 0.457845 205 155 149
0.033645 0.011844 0.444743 205 155 149
0.039230 0.001637 0.453218 208 156 151
0.127769 -0.023978 0.481605 208 156 153
-0.032438 0.004486 0.436005 202 157 150
-0.055605 -0.012749 0.444336 208 160 154
0.048782 0.009482 0.448065 225 174 166
0.097555 -0.030974 0.478315 225 175 169
-0.041080 -0.018962 0.449438 215 166 157
0.094322 0.013096 0.457208 223 168 164
-0.106057 -0.019881 0.439206 221 176 171
0.070312 0.049588 0.447266 224 172 169
0.041392 0.025209 0.443790 227 177 171
0.026240 -0.011380 0.455784 217 167 161
0.059768 -0.029600 0.472633 233 181 178
0.068763 0.005068 0.457052 229 179 175
0.021230 0.011139 0.443115 215 166 157
0.018390 0.013000 0.442165 222 172 166
-0.128031 -0.037766 0.443026 229 177 174
0.033419 0.007476 0.447049 225 177 173
0.067035 0.022336 0.447241 235 184 176
0.051557 0.053424 0.441993 224 172 167
-0.095206 -0.029391 0.448531 216 165 155
0.065277 -0.032088 0.477246 206 155 147
0.043678 0.020420 0.445482 216 168 162
0.052282 0.040876 0.444582 232 182 176
0.033558 0.033886 0.440122 204 145 140
-0.110544 0.007231 0.417172 229 179 173
0.044424 0.010206 0.449929 232 181 173
-0.108552 0.016017 0.418036 228 178 172
0.079093 -0.043144 0.483723 207 158 149
0.102653 -0.028200 0.477384 221 171 165
-0.088253 -0.022487 0.443794 221 170 160
-0.027432 -0.024197 0.456832 222 174 168
0.057652 0.016761 0.447852 222 170 165
-0.026949 -0.059662 0.486931 214 166 160
0.029877 0.014011 0.444352 206 151 147
0.093646 0.024401 0.454463 216 170 152
-0.034625 0.033228 0.424380 226 174 169
0.260124 0.040958 0.504895 237 189 185
-0.085045 -0.013011 0.440875 213 164 155
0.211235 -0.000956 0.497339 201 152 143
0.017240 0.041320 0.434091 208 160 154
0.018555 0.023243 0.439271 203 160 143
0.198708 -0.028749 0.509938 224 172 167
0.046630 0.016323 0.446713 202 152 139
0.052827 -0.035406 0.472884 209 159 153
0.073677 -0.030148 0.474712 232 189 181
0.104314 0.028945 0.456471 236 188 182
-0.101460 -0.037751 0.451738 210 159 151
0.044724 -0.028590 0.469358 219 168 160
-0.045130 -0.004064 0.439862 231 179 176
0.051529 0.056894 0.443251 206 154 149
0.023145 0.054078 0.435059 218 170 166
-0.031162 0.019125 0.431363 215 165 159
-0.044991 -0.069688 0.501824 222 173 164
0.083161 0.021549 0.452464 217 166 156
0.003902 -0.034242 0.469055 228 172 164
0.110072 -0.003113 0.467504 220 177 173
0.078496 -0.035809 0.479505 225 174 164
0.078537 0.035665 0.450036 230 180 174
0.050537 0.048298 0.442874 204 153 145
-0.103691 -0.034800 0.453638 218 169 160
-0.061849 -0.010624 0.440420 238 188 186
-0.076036 -0.025796 0.451295 227 177 171
0.045923 0.013901 0.447319 228 174 167
0.077402 0.046816 0.449236 232 184 178
0.117298 0.006768 0.462331 243 193 187
0.126374 -0.018180 0.477771 218 166 163
0.040731 0.008241 0.448811 214 164 158
-0.039223 -0.046951 0.476879 223 173 167
0.118448 -0.035130 0.485984 237 188 179
0.084565 0.005894 0.457170 206 156 150
0.027335 0.010192 0.444447 193 142 132
0.106078 0.004411 0.462116 232 180 177
-0.051618 0.005885 0.434168 214 163 155
0.045244 0.039510 0.441369 207 158 149
-0.058327 0.013949 0.429047 202 153 142
0.060567 0.009932 0.451540 221 172 161
0.044442 0.025222 0.445240 208 160 156
-0.088492 -0.003987 0.436104 214 162 157
0.088999 -0.019134 0.469528 196 151 144
0.065020 0.039458 0.446385 226 174 169
0.029633 -0.014643 0.459112 233 178 174
-0.084683 -0.028697 0.449485 200 150 144
0.102757 0.019143 0.458580 219 171 167
0.096584 -0.002602 0.462701 216 167 158
0.169799 -0.002834 0.482014 206 154 149
0.051070 0.004915 0.450410 202 150 145
-0.086745 -0.010719 0.439082 217 168 159
0.091409 0.027443 0.453855 219 168 160
0.097301 -0.008458 0.467337 221 171 165
-0.096150 0.021809 0.416134 196 145 137
0.014005 0.035222 0.435901 231 179 174
-0.001817 0.009647 0.439610 239 189 183
-0.032359 0.008553 0.433734 222 170 167
0.011624 -0.033474 0.470194 184 129 118
0.081265 0.000673 0.460104 212 164 158
-0.050782 -0.000948 0.437798 225 180 177
-0.040474 -0.011911 0.446620 224 172 167
0.080795 0.045895 0.450082 221 171 165
0.096530 -0.034966 0.482134 240 188 183
-0.113352 -0.025046 0.438411 228 179 168
-0.084041 -0.040244 0.462023 222 174 168
0.029481 0.058210 0.436122 224 175 164
0.015603 0.007506 0.442895 233 181 176
0.119998 -0.059464 0.512156 213 165 161
0.115457 -0.054236 0.504710 213 164 153
0.102119 -0.014753 0.471443 237 187 181
-0.045538 -0.012345 0.445817 206 157 148
0.057993 0.060489 0.445797 226 171 167
-0.067189 0.008180 0.430967 219 164 160
-0.116639 -0.045036 0.459319 218 169 160
0.019220 -0.030048 0.468238 234 184 178
-0.000995 0.018296 0.438708 235 180 176
-0.013484 0.010746 0.438666 228 173 171
-0.011434 -0.017538 0.455229 218 167 157
0.057583 0.022611 0.445783 223 168 164
0.096732 0.047123 0.456856 211 164 155
0.023372 -0.016922 0.460323 244 192 189
-0.029114 0.017176 0.431514 200 150 146
0.079005 -0.020175 0.468131 211 165 149
0.098777 0.043886 0.455165 208 156 153
-0.094473 0.045157 0.411572 229 180 169
0.088453 -0.006918 0.464586 223 173 167
0.047921 0.087512 0.450958 223 174 165
0.001063 0.051506 0.430214 210 158 153
0.090197 -0.031932 0.479455 219 167 164
0.058384 0.053682 0.446826 248 198 192
0.016056 -0.035029 0.470776 227 178 167
0.106818 -0.037685 0.486061 213 165 149
-0.124163 -0.034392 0.443224 233 178 174
0.092425 -0.049296 0.492916 202 153 144
0.017767 0.058344 0.433993 223 178 173
0.003823 0.032821 0.434005 216 166 160
0.063670 0.042899 0.445624 219 168 160
-0.070750 -0.014086 0.437884 217 166 158
-0.063578 0.045223 0.419499 196 147 136
0.019119 -0.056020 0.485996 223 173 169
0.038865 0.038683 0.442344 211 158 146
0.014849 -0.030957 0.469607 215 171 170
0.097315 -0.051677 0.496245 222 171 172
0.147923 0.020764 0.467757 213 159 150
0.070477 0.036073 0.448112 243 191 186
0.103112 -0.007987 0.465085 225 173 168
-0.008853 0.010079 0.439056 202 151 141
0.044957 0.032766 0.442965 212 166 152
0.084683 -0.017597 0.466096 215 167 163
-0.112207 -0.020594 0.440088 212 157 155
-0.034129 0.021454 0.429384 225 173 170
-0.021855 -0.057869 0.491991 223 175 171
-0.109418 0.020471 0.417162 232 182 176
-0.066397 -0.066561 0.497659 230 178 177
0.094143 -0.015746 0.470568 215 167 161
0.039889 -0.025789 0.464896 196 148 134
0.006184 0.029967 0.435821 230 178 173
0.084592 -0.001068 0.460778 221 169 164
0.042274 0.079140 0.444899 220 171 160
-0.105450 0.010049 0.417661 230 180 174
0.072802 -0.012576 0.459167 207 158 149
0.000397 -0.001312 0.447192 208 160 146
0.105146 0.013752 0.463050 216 168 154
-0.111871 -0.015541 0.433427 223 173 167
0.070188 0.044210 0.446827 231 181 175
0.020699 0.002044 0.449493 196 147 136
0.115166 0.049292 0.460701 209 158 150
0.048540 -0.044574 0.480491 228 183 180
0.033045 0.024987 0.443309 206 151 147
-0.021196 -0.026651 0.461467 209 157 154
-0.037816 -0.042509 0.475341 221 173 169
0.023813 -0.025382 0.464123 216 168 162
-0.081826 -0.019031 0.444905 231 181 177
0.145107 0.018268 0.469281 229 179 173
-0.088453 -0.028318 0.449505 206 157 148
-0.025150 -0.026422 0.461687 206 157 148
0.116020 -0.009465 0.471052 207 155 150
-0.026065 -0.035189 0.465809 202 153 144
0.191128 0.009001 0.485243 215 163 160
0.130406 -0.021348 0.479972 222 171 161
0.042809 -0.003448 0.456032 213 159 152
0.029883 -0.064062 0.495060 222 171 163
-0.032183 -0.061316 0.488626 230 180 176
-0.074054 -0.011217 0.440232 215 167 161
-0.115695 -0.030210 0.444423 233 181 176
0.020764 -0.035497 0.470474 221 178 161
0.162816 0.014079 0.474787 228 176 171
0.016714 -0.020845 0.460773 226 178 174
0.091265 -0.011625 0.468118 209 161 155
0.204945 0.008845 0.488869 230 179 171
-0.047608 -0.005432 0.440258 213 165 159
0.095772 0.028553 0.453317 215 168 159
-0.070303 0.038154 0.415596 239 184 180
0.109435 0.029611 0.456515 217 167 161
0.000533 -0.005298 0.451974 215 167 161
0.059038 0.012723 0.449167 228 178 172
0.018106 0.016409 0.443199 222 171 161
-0.030312 0.002287 0.438742 238 183 181
-0.007287 -0.011980 0.451099 219 168 158
0.193185 -0.048210 0.524533 241 192 181
-0.024080 -0.015683 0.453050 210 160 156
0.205370 0.003446 0.492161 198 153 150
0.057055 0.029747 0.446891 216 170 154
0.033555 -0.001187 0.452287 201 151 145
0.011610 0.037438 0.434968 229 179 173
0.212584 0.026598 0.489665 221 171 167
0.163059 -0.042969 0.514726 231 180 172
-0.077322 0.025481 0.420525 206 154 149
-0.110653 -0.044884 0.461206 240 192 188
0.039206 0.027707 0.443908 193 144 133
-0.086678 0.013563 0.423734 211 165 149
0.008257 -0.013729 0.456350 236 177 172
0.029785 0.027726 0.442452 231 179 174
0.068415 -0.010277 0.458552 229 180 171
0.089777 -0.015454 0.467506 214 155 148
0.106770 -0.022395 0.473541 195 143 138
0.023216 -0.006783 0.455685 212 160 157
0.051456 -0.026641 0.468823 192 145 136
0.100161 0.018023 0.460452 218 173 168
-0.002891 0.037176 0.431303 210 160 143
0.028944 0.024099 0.443006 221 170 160
-0.080251 -0.050753 0.477279 214 164 158
-0.010098 -0.038802 0.470476 229 177 172
0.084931 0.041217 0.451196 226 174 169
0.006068 -0.041798 0.474730 223 173 167
-0.110405 -0.024969 0.440890 235 183 178
-0.049219 -0.021520 0.451633 215 164 154
0.186524 -0.010903 0.491580 210 160 147
-0.028554 0.011866 0.432927 234 180 173
0.113013 -0.001070 0.465914 224 175 164
0.160910 -0.019072 0.487798 217 167 161
0.204244 -0.012885 0.493007 231 179 176
-0.001005 -0.058038 0.486834 232 180 175
-0.011932 0.016576 0.434874 206 156 152
0.055819 -0.005057 0.457330 229 177 172
-0.113077 -0.010747 0.433238 208 169 155
0.054881 -0.027505 0.468511 208 158 152
0.029177 -0.056932 0.490806 220 172 166
0.075834 0.009464 0.455653 246 198 192
-0.122683 -0.036493 0.446762 228 183 178
-0.037256 0.024403 0.427127 237 189 185
0.042863 -0.041549 0.479751 228 176 171
-0.100955 -0.005866 0.433122 221 173 169
-0.122561 -0.000606 0.419040 220 170 166
0.072856 0.053885 0.447748 222 171 161
-0.090272 -0.002673 0.430607 208 158 152
-0.071086 0.029483 0.417455 223 173 167
0.179885 -0.010513 0.490358 211 168 151
-0.112722 -0.041270 0.456326 237 190 181
0.038495 0.014898 0.444803 234 179 175
-0.081117 0.036679 0.416582 228 176 171
-0.038190 0.061859 0.420863 244 194 188
0.049049 0.039106 0.444824 215 159 153
0.233418 -0.017720 0.510546 206 157 148
0.001223 0.046434 0.433424 203 149 140
-0.069370 0.056878 0.415241 207 159 153
-0.092386 -0.007535 0.431541 225 173 168
-0.049402 0.035680 0.421155 217 165 160
-0.060396 -0.041571 0.469152 227 177 171
-0.107062 -0.000201 0.422002 228 179 170
0.069477 -0.037219 0.478528 228 173 169
0.085394 0.001486 0.458118 220 172 170
0.037649 -0.011455 0.457357 229 177 172
0.075524 0.050224 0.448334 224 172 169
-0.033408 0.072639 0.422487 243 195 189
0.196148 -0.007246 0.494730 227 177 171
0.227071 0.015019 0.496386 205 160 155
0.002810 0.008679 0.441384 230 180 176
0.035450 0.003066 0.452746 210 160 154
-0.039321 -0.051119 0.479023 220 166 159
-0.015610 -0.000234 0.445096 242 187 183
0.116122 0.016371 0.460183 235 187 185
-0.086480 0.019967 0.422745 210 162 148
0.091827 -0.019782 0.469289 228 176 173
0.091733 0.007523 0.458852 212 161 151
-0.059382 0.049442 0.416538 216 166 162
0.115725 -0.024671 0.479858 189 135 126
-0.014642 -0.047943 0.480940 216 166 162
-0.046360 0.017049 0.428946 217 167 154
-0.006927 0.024827 0.434694 217 162 160
0.201420 -0.007544 0.497257 210 160 156
-0.095097 -0.036169 0.456378 230 176 167
0.041088 0.004054 0.450621 210 161 152
0.066616 0.052600 0.447521 244 193 185
0.271393 -0.002946 0.510255 234 184 178
0.097585 -0.000538 0.462159 243 193 187
0.037752 0.054169 0.439851 227 172 168
-0.124451 -0.005164 0.423973 235 183 178
0.111797 0.007526 0.463794 223 174 165
0.089150 0.036080 0.452377 235 185 181
-0.061105 -0.046964 0.474243 216 165 157
0.030769 0.062868 0.437961 232 184 180
0.067187 0.027504 0.448915 215 165 159
0.125729 -0.019906 0.479411 205 157 153
-0.098367 -0.018611 0.445431 217 165 160
0.086991 0.042687 0.452003 206 155 147
-0.097960 -0.028353 0.449316 222 172 166
0.037077 0.035415 0.440527 210 159 151
-0.020650 0.007432 0.437406 229 179 173
0.110711 -0.015767 0.470884 237 192 187
0.087369 -0.039498 0.483696 216 167 158
0.070750 0.004054 0.455801 212 169 150
-0.083497 -0.026160 0.448244 219 174 169
0.116062 0.007295 0.464879 226 171 167
0.087039 0.006886 0.458649 230 185 180
-0.115220 -0.050074 0.465951 239 189 183
0.138333 0.017906 0.463408 224 174 168
-0.086151 0.042746 0.415074 217 168 159
0.054596 0.011060 0.446377 242 187 183
-0.009922 -0.032859 0.466798 222 167 156
0.112832 0.004928 0.465128 212 158 151
-0.064324 -0.063837 0.493113 223 171 168
0.098054 -0.014693 0.472109 225 175 169
0.115963 0.014279 0.463239 223 175 171
0.107333 0.013281 0.460668 203 152 144
0.053475 0.038760 0.442259 217 165 160
-0.120262 -0.049398 0.463670 233 182 174
-0.082068 -0.012291 0.438961 205 157 153
-0.027912 -0.064399 0.489640 225 176 167
0.024376 -0.028026 0.466891 179 132 121
0.093918 -0.001969 0.462868 216 173 167
0.106268 -0.052988 0.501903 219 169 156
0.043403 0.007327 0.448327 223 171 166
0.057390 -0.011961 0.458485 212 169 154
0.123598 -0.028036 0.481559 202 151 143
0.046015 0.009817 0.449120 229 177 172
0.091108 -0.036253 0.481607 215 164 154
0.102428 -0.031510 0.480320 213 159 150
-0.125761 -0.014237 0.422678 228 183 178
-0.101424 -0.009884 0.433416 215 163 160
-0.056593 0.053322 0.417245 231 179 176
0.119088 0.009599 0.462742 218 169 160
-0.070237 -0.032552 0.459174 209 161 147
0.009445 0.025108 0.437599 210 156 147
0.096292 0.004643 0.459396 206 156 150
0.123200 -0.002244 0.464612 246 201 196
-0.112743 -0.053571 0.473043 210 161 152
-0.026241 0.021174 0.432607 216 165 157
0.075307 -0.011047 0.462646 219 168 158
0.142158 -0.019911 0.483455 211 160 152
0.087560 0.024649 0.453804 218 166 161
-0.017731 0.006299 0.437167 204 163 147
0.118175 -0.004414 0.470175 225 177 173
0.099009 0.006003 0.460675 218 163 161
0.038437 -0.005449 0.455735 241 191 185
0.131589 -0.016374 0.479850 221 172 163
0.054677 -0.006838 0.457711 238 186 181
-0.127269 -0.043599 0.455195 203 149 142
0.118645 -0.053506 0.506749 196 142 135
-0.037390 -0.045380 0.473004 243 195 189
-0.094156 -0.042165 0.462349 211 168 153
0.102900 -0.012914 0.469385 230 181 172
-0.079876 -0.055793 0.479909 218 168 162
-0.016834 -0.028513 0.460908 223 171 168
0.059575 0.023655 0.445985 216 162 153
0.215292 0.013587 0.496933 217 167 154
0.114113 -0.004906 0.465562 208 160 154
0.109797 -0.048988 0.498445 221 171 165
0.279778 -0.005790 0.518914 231 181 175
-0.102470 -0.049251 0.469297 213 158 154
0.123307 -0.025617 0.482424 211 163 149
0.100800 -0.022828 0.476614 224 169 167
-0.050059 0.007021 0.433892 238 188 182
-0.084272 -0.060176 0.489670 230 178 173
-0.135506 -0.049675 0.453600 206 156 141
0.042007 -0.005136 0.457899 213 159 150
0.053844 0.042128 0.442595 227 178 179
0.062770 -0.058255 0.496454 226 174 171
0.093796 0.010785 0.457232 209 159 153
0.129419 0.003723 0.466786 223 174 163
0.231028 0.011136 0.500061 215 165 159
0.028040 0.002634 0.448266 237 189 185
0.081324 -0.041743 0.484857 224 172 167
-0.082679 -0.039014 0.462457 223 171 166
-0.031134 0.030183 0.428574 206 155 147
0.102803 0.024314 0.456842 225 174 166
0.197862 -0.006938 0.494757 206 157 146
0.184420 0.054535 0.481128 240 186 179
-0.105781 -0.018010 0.443127 221 167 160
-0.109410 -0.029636 0.448035 229 177 172
0.029636 0.032393 0.438005 201 150 142
-0.075902 -0.033539 0.460351 203 155 139
-0.115134 -0.032673 0.448314 215 163 158
0.104434 -0.002558 0.464157 210 158 153
0.028183 -0.009335 0.456250 205 155 149
0.193939 0.011241 0.484841 210 158 153
0.109586 -0.035709 0.485233 216 167 158
0.040963 -0.022857 0.464994 210 167 159
-0.090747 -0.052341 0.474622 214 164 160
-0.093310 -0.018841 0.445669 213 164 153
0.144271 -0.013026 0.482321 215 165 161
-0.081052 -0.027904 0.457848 194 143 135
-0.100888 -0.070009 0.509399 217 168 159
0.119780 -0.006036 0.470838 212 160 155
0.166740 0.051854 0.473498 222 173 164
-0.082703 -0.016814 0.450352 227 172 170
0.210661 -0.033002 0.512794 220 172 170
-0.004177 0.031091 0.431448 223 178 173
0.032378 0.059312 0.433395 228 177 169
-0.069334 -0.030548 0.459569 214 159 155
0.023361 0.003839 0.446215 221 170 162
0.077979 0.053338 0.448489 218 166 161
0.197644 -0.018765 0.503730 200 150 148
0.106451 -0.003651 0.466261 214 162 157
0.054038 0.054976 0.440669 211 160 150
0.024269 0.048747 0.434132 209 157 154
0.252872 -0.004511 0.509888 207 155 152
0.258122 0.017375 0.500745 212 158 149
0.276582 -0.049969 0.552329 213 158 154
0.183802 0.057050 0.482336 222 170 165
0.282210 0.008728 0.513563 209 159 155
0.294213 -0.038281 0.546016 224 174 168
0.280529 -0.001048 0.515934 211 156 152
0.229865 0.015310 0.495308 211 162 153
0.158343 0.003079 0.479418 203 153 147
0.159950 0.035180 0.471876 206 156 154
-0.006225 -0.051318 0.485600 216 165 155
0.201296 -0.031382 0.513522 209 159 155
0.259066 0.011648 0.503430 217 162 158
0.250471 -0.019689 0.516583 224 174 168
0.101511 -0.018648 0.476215 207 155 150
0.185617 0.060121 0.485441 211 161 159
0.213097 -0.017576 0.505891 222 172 168
0.286443 -0.004775 0.518676 237 185 180
0.369596 0.022715 0.526656 232 182 178
0.290565 0.013780 0.513882 209 166 160
0.232709 0.012505 0.499390 206 154 151
0.211505 -0.010004 0.503071 221 176 171
0.027142 0.015863 0.445855 219 171 167
0.221774 -0.055785 0.546225 219 166 152
0.255257 -0.001486 0.509992 206 153 139
0.007510 -0.033114 0.472250 208 154 145
0.035973 0.004287 0.450046 219 167 162
0.319878 0.027030 0.515340 195 149 149
0.285825 0.004931 0.513965 182 142 135
0.280235 -0.009922 0.520614 211 151 149
0.140323 -0.013637 0.482235 209 158 150
-0.008906 -0.063181 0.497189 214 164 158
0.113196 0.064532 0.458765 224 172 167
0.295304 -0.001533 0.516756 232 178 171
0.074899 0.048759 0.448059 209 157 154
0.273997 -0.008564 0.518416 217 168 157
0.265732 -0.005566 0.516664 218 162 154
0.135040 -0.015688 0.479861 218 168 162
0.212314 -0.030385 0.516431 218 167 159
0.232404 0.022060 0.496690 222 165 162
0.136378 -0.035804 0.500308 221 171 167
0.086016 -0.024523 0.472974 200 150 144
0.209273 -0.006911 0.501078 225 176 167
0.274320 -0.005646 0.516157 228 176 171
0.294475 -0.004142 0.519075 213 158 154
0.215873 -0.039466 0.525473 223 168 166
0.257580 0.005789 0.504917 230 180 174
0.285186 -0.001631 0.517121 209 158 150
0.096196 -0.031127 0.478626 225 173 168
0.359324 -0.018472 0.542349 204 152 147
0.340047 0.007669 0.526333 189 144 139
0.067312 0.027435 0.448938 213 163 157
0.117975 -0.006575 0.471016 230 180 174
0.300484 -0.003572 0.520912 220 172 170
0.065598 0.016040 0.450542 209 159 153
0.414867 0.064877 0.531353 213 163 157
0.351234 -0.011245 0.535689 220 171 162
0.341228 0.046887 0.520070 225 175 169
0.306989 -0.028967 0.537429 237 187 183
0.366874 0.016688 0.526855 222 170 165
0.257503 -0.031183 0.529472 234 184 178
0.292094 -0.047537 0.559455 201 153 147
0.238595 -0.012669 0.512753 231 171 169
0.280780 0.000887 0.515093 203 158 151
0.363206 0.018982 0.526988 208 159 150
0.289886 0.002884 0.514965 231 177 170
0.258535 -0.006032 0.513320 225 173 170
0.415214 0.012004 0.530002 229 173 167
0.319344 0.010373 0.520331 218 168 166
0.304453 -0.029025 0.540928 245 189 183
0.200325 -0.012334 0.503610 202 150 147
0.370134 0.028397 0.527146 217 167 165
0.231670 0.024986 0.496392 234 186 180
0.235592 0.023585 0.495806 222 171 161
0.203896 0.005531 0.494042 203 153 149
0.278754 0.035268 0.505099 203 153 149
0.111040 -0.045570 0.492905 223 173 169
0.200085 -0.033396 0.516694 220 165 161
0.122024 -0.026780 0.482620 216 162 153
0.340140 -0.002546 0.528499 210 157 145
0.379968 0.048971 0.529113 225 180 175
0.359844 -0.014808 0.540896 200 151 142
0.118723 0.002448 0.467136 221 176 171
0.341382 0.004737 0.526588 213 164 155
0.298225 0.010858 0.515115 243 193 187
0.362018 -0.008188 0.534488 209 155 148
0.253624 -0.031973 0.530809 208 165 159
0.360154 -0.010578 0.537489 222 171 163
0.285408 0.012829 0.514002 238 189 178
0.293812 -0.012286 0.525672 220 170 166
0.156082 -0.009742 0.486863 224 170 163
0.331716 0.012562 0.523070 244 195 186
0.329466 0.005796 0.524134 194 149 146
0.267302 -0.004480 0.513371 187 146 144
0.329239 0.033135 0.515641 215 165 159
0.238902 0.000771 0.505183 230 180 174
0.259985 0.016133 0.504147 216 168 164
0.230345 0.021399 0.495653 217 165 162
0.281881 -0.003544 0.518034 188 128 118
0.212804 -0.011229 0.504784 226 178 172
0.262266 -0.046928 0.547185 221 167 160
0.385400 -0.042011 0.570145 189 133 127
0.460686 -0.021067 0.537032 224 170 163
0.446099 0.039076 0.526577 201 152 143
0.193069 -0.005732 0.493712 230 180 174
0.277816 -0.038529 0.542943 181 130 122
0.293659 0.017534 0.513570 196 146 142
0.446808 0.049895 0.526881 197 143 134
0.287916 -0.021836 0.531788 199 151 145
0.198005 0.004983 0.491724 202 152 146
0.313604 -0.033705 0.547326 198 138 136
0.438242 -0.008613 0.530972 196 146 140
0.292566 -0.017665 0.528848 204 156 150
0.341606 -0.018366 0.539518 216 164 161
0.283494 -0.009638 0.522367 228 176 171
0.349995 -0.002642 0.528084 209 157 154
0.326850 0.001000 0.525198 208 153 149
0.146798 -0.005529 0.479808 217 165 160
0.377935 0.028619 0.527014 209 155 146
0.274342 0.000386 0.513967 208 158 152
0.422445 0.048022 0.530469 205 155 149
0.432637 -0.005648 0.532416 202 150 145
0.431844 0.001097 0.529011 216 167 158
0.230189 0.009074 0.498018 209 161 157
0.353894 -0.003345 0.529757 221 165 159
0.315747 -0.041784 0.559970 207 159 153
0.242077 -0.027864 0.524059 196 149 140
0.335690 -0.014561 0.535659 208 158 145
0.270572 -0.005789 0.517214 221 171 169
0.380838 0.017634 0.527544 215 164 156
0.298175 0.003707 0.518711 180 137 133
0.448029 0.003737 0.526320 211 160 152
0.200502 -0.004099 0.496080 216 171 166
0.297553 -0.022531 0.533463 203 153 147
0.436129 0.051854 0.528306 204 152 151
0.280752 0.012191 0.513619 210 159 151
0.271184 -0.041632 0.546376 212 154 140
0.323894 -0.013633 0.533083 209 149 147
0.293265 -0.026623 0.534972 185 137 135
0.323296 0.037225 0.516624 201 147 140
0.327041 0.005560 0.524799 210 154 148
0.290812 -0.036801 0.545419 217 165 160
0.261163 0.013329 0.505692 188 139 130
0.283170 0.004465 0.514846 208 149 142
0.257691 -0.047058 0.545747 203 153 149
0.270638 -0.020098 0.524357 216 166 162
0.323787 0.055262 0.515010 216 168 166
0.323890 0.014860 0.519737 224 169 165
0.207543 -0.011218 0.502396 205 151 144
0.294220 0.023846 0.512111 210 156 147
0.462263 -0.044033 0.562082 235 187 185
0.206244 -0.005273 0.498084 197 146 136
0.134106 -0.009810 0.478587 208 158 152
0.276508 0.006043 0.511944 197 145 142
0.311481 -0.036267 0.551754 224 170 163
0.443893 0.028636 0.528007 214 169 164
0.378970 -0.001790 0.529101 200 149 139
0.099596 -0.031971 0.479337 214 157 154
0.440868 -0.021276 0.542292 209 158 148
0.283438 -0.005555 0.519002 210 155 151
0.287277 -0.015868 0.526385 218 163 159
0.370248 -0.001220 0.531133 198 149 138
0.372508 0.036399 0.526631 203 148 146
0.277858 0.043384 0.504982 204 153 145
0.301895 -0.030817 0.542179 212 160 155
0.111099 -0.010709 0.473421 202 148 141
0.174108 -0.010792 0.490358 210 155 153
0.426147 0.050299 0.528427 213 163 157
0.458676 -0.023526 0.538536 216 161 157
0.387649 0.000187 0.530108 201 147 140
0.196389 -0.003754 0.493276 202 151 143
0.346474 0.001450 0.526523 214 159 155
0.297421 0.014534 0.515395 211 154 153
0.308512 0.004681 0.520259 187 128 121
0.350085 0.001052 0.525589 212 157 153
0.138720 -0.019992 0.484259 215 163 158
0.271412 -0.012044 0.520073 232 183 174
0.276897 0.012116 0.511191 222 172 166
0.285044 -0.013431 0.524867 220 171 160
0.234203 0.014274 0.499184 233 181 180
0.066683 0.016242 0.450806 210 156 149
0.086399 -0.023542 0.471230 200 150 144
0.277126 0.019188 0.508541 208 154 147
0.334997 0.002078 0.526165 203 153 149
0.270342 0.003768 0.511133 185 136 127
0.187879 0.061940 0.485976 222 173 164
0.330958 -0.021432 0.539336 223 173 167
0.408008 -0.036439 0.567342 224 174 168
0.297472 -0.028302 0.541044 217 168 159
0.256862 0.000116 0.509760 206 155 145
0.347545 0.011095 0.526808 214 166 162
0.232531 0.018226 0.496993 216 164 161
0.381482 0.033130 0.526986 213 164 155
0.369405 0.019406 0.526581 220 172 168
0.287238 -0.002302 0.517549 209 158 150
0.128641 -0.009159 0.475793 204 153 145
0.115336 0.013337 0.462572 209 150 145
0.477883 -0.002091 0.517143 213 164 155
0.211948 -0.008659 0.501666 197 146 136
0.299499 -0.008453 0.524992 212 160 155
0.303127 -0.020577 0.534127 214 160 151
0.217649 -0.032755 0.519539 218 173 166
0.355470 0.000578 0.526641 213 157 151
0.305474 0.045277 0.511829 217 161 155
0.240446 -0.012374 0.509643 225 175 171
0.345213 0.050797 0.519331 217 164 166
0.374196 -0.037594 0.568584 213 159 152
0.329851 -0.003465 0.525981 225 173 168
0.422330 0.045460 0.528988 214 163 155
0.456983 -0.018701 0.535466 219 162 159
0.331541 0.014681 0.523107 223 169 162
0.211261 -0.005336 0.501379 197 153 152
0.330497 0.048384 0.515090 205 155 149
0.372371 -0.010777 0.536376 224 173 174
0.329735 0.008049 0.524663 206 156 150
0.183685 0.002731 0.486389 204 153 145
0.322586 0.029325 0.515684 165 117 111
0.352029 0.039755 0.521786 205 149 143
0.423672 -0.012506 0.537878 227 177 175
0.293425 -0.025654 0.532360 210 159 151
0.420611 -0.012180 0.538946 209 161 147
0.482732 -0.030820 0.530415 211 160 150
0.420677 0.003485 0.527837 214 163 153
0.489925 -0.037391 0.532411 216 164 159
0.317904 -0.006310 0.526284 202 151 143
0.453242 -0.023442 0.543765 209 155 148
0.426019 -0.012378 0.535886 217 166 156
0.291865 0.003556 0.515878 209 159 153
0.437256 -0.021230 0.541790 202 148 141
0.202809 -0.005493 0.498019 222 170 165
0.319607 -0.002500 0.523944 223 169 162
0.334070 -0.026036 0.543580 209 158 150
0.449280 -0.020423 0.542491 221 173 167
0.436078 -0.034080 0.561133 214 164 158
0.346035 -0.001395 0.527984 203 154 145
0.324366 0.041468 0.515788 225 169 172
0.446625 -0.036421 0.557328 208 158 152
0.299670 0.014214 0.515188 179 123 115
0.282993 0.012379 0.513847 216 160 163
0.370896 0.009414 0.526484 219 165 158
0.438899 0.041214 0.525754 226 178 174
0.363441 -0.017839 0.541356 202 152 146
0.332153 -0.018559 0.538304 218 166 161
0.360017 -0.028778 0.555834 218 168 162
0.332621 -0.014495 0.535690 214 165 156
0.209069 0.078945 0.501219 225 174 166
0.221287 0.011975 0.496596 225 175 173
0.327069 0.013057 0.521990 214 163 153
0.308970 0.019677 0.515977 219 165 158
0.250527 -0.041472 0.538460 217 165 160
0.194144 -0.029706 0.511289 203 149 142
0.352023 0.019918 0.523678 211 164 155
0.351967 0.032262 0.521775 232 175 172
0.118124 -0.040319 0.492737 220 171 162
0.293433 0.031779 0.507498 216 167 156
0.068744 0.025775 0.448017 213 164 155
0.262667 0.018483 0.503912 162 108 99
0.451957 -0.047176 0.574153 205 150 139
0.427135 -0.009001 0.535292 236 184 181
0.337693 0.013407 0.524455 227 173 166
0.315532 0.013030 0.519678 223 172 164
0.278622 -0.003412 0.516700 241 186 182
0.453572 -0.017251 0.537894 232 189 183
0.319499 -0.014078 0.532727 234 178 172
0.311472 0.038471 0.513746 224 173 165
0.449138 -0.025670 0.546257 233 185 179
0.284589 -0.025780 0.532248 229 178 168
0.313913 -0.020591 0.537793 231 174 171
0.289083 -0.014406 0.527541 225 175 169
0.456773 0.058309 0.522779 224 170 163
0.416687 0.067253 0.530497 209 159 153
0.378596 0.035861 0.526270 217 162 158
0.444034 -0.018492 0.542476 229 180 171
0.162677 0.005482 0.479781 232 177 173
0.371323 0.018841 0.526118 228 178 174
0.213234 -0.000941 0.498661 221 171 165
0.361678 0.016965 0.527231 231 176 176
0.430461 -0.012543 0.536286 229 180 171
0.267543 0.028486 0.503639 223 168 164
0.102395 0.010993 0.460867 229 178 181
0.296873 0.027792 0.509518 223 162 157
0.463469 0.002547 0.521827 202 153 144
0.462687 -0.009064 0.526825 201 151 145
0.269009 -0.028744 0.531243 231 181 175
0.265755 -0.028249 0.530009 219 163 157
0.353375 -0.013381 0.536130 192 141 131
0.102960 -0.030343 0.478930 232 177 173
0.364130 0.011598 0.525650 222 166 158
0.297469 0.032715 0.507760 229 177 172
0.282485 0.001728 0.514988 220 166 159
0.309763 -0.032795 0.546084 241 191 189
0.054320 0.008206 0.452177 225 171 164
0.425811 -0.014472 0.539485 241 191 189
0.397007 0.029059 0.530752 215 164 154
0.267564 -0.001866 0.515606 232 184 180
0.324497 0.017199 0.521190 233 177 171
0.441174 0.001067 0.527985 220 166 159
0.453520 0.016014 0.523548 223 171 166
0.315205 -0.032975 0.545930 195 150 145
0.333322 -0.020769 0.541107 237 185 182
0.127487 0.023081 0.463682 239 187 186
0.052485 -0.010332 0.460549 224 168 162
0.234210 0.024388 0.496093 205 151 144
0.292537 0.016050 0.513645 233 185 183
0.319383 0.030116 0.516672 235 181 174
0.287632 0.000401 0.515206 211 157 150
0.373758 0.037909 0.525092 232 178 171
0.338244 0.027533 0.520544 240 184 178
0.345737 0.022979 0.522307 224 172 167
0.155135 0.052193 0.470303 231 181 177
0.285926 -0.002991 0.517895 236 186 180
0.349081 0.037870 0.522786 227 178 167
0.279080 0.020369 0.508877 232 180 177
0.200669 -0.016684 0.504128 207 146 141
0.235388 -0.010117 0.511306 235 176 171
0.398690 -0.014521 0.539613 226 169 166
0.116967 0.012915 0.462618 229 177 172
0.309790 -0.026339 0.542750 217 163 156
0.286999 -0.017687 0.525605 241 193 191
0.358156 -0.000863 0.527994 187 136 126
0.342128 0.008766 0.528267 186 137 126
0.418674 0.014691 0.532257 254 197 194
0.435210 0.003045 0.532836 212 160 155
0.335943 0.026030 0.520404 231 175 178
0.360731 -0.017255 0.543335 213 156 153
0.283604 0.032169 0.504531 231 181 179
0.322739 0.034835 0.514278 223 168 166
0.434858 -0.004359 0.533851 223 175 171
0.352399 0.003418 0.525727 216 162 155
0.314488 0.001847 0.522676 229 178 170
0.195810 -0.017715 0.506262 220 166 157
0.207724 -0.002721 0.498837 225 175 169
0.321293 0.012766 0.519286 221 165 159
0.371815 0.014062 0.525927 233 179 172
0.280036 0.037046 0.503094 232 184 178
0.306611 -0.014953 0.534185 237 183 176
0.136279 -0.008582 0.478485 230 170 168
0.321087 0.038024 0.516120 239 189 187
0.232846 0.019591 0.497387 224 174 168
0.286593 0.006500 0.515273 239 187 184
0.122410 -0.003179 0.469273 227 170 167
0.328319 0.029553 0.515799 214 165 156
0.354621 -0.008314 0.535087 227 172 168
0.348170 0.003181 0.525320 230 185 178
0.373592 0.034006 0.528700 230 181 172
0.375811 0.020398 0.526148 246 194 191
0.283896 -0.007515 0.520119 233 172 167
0.349203 0.012040 0.526588 217 166 158
0.274838 -0.003830 0.517281 224 169 169
0.351657 0.009143 0.528696 232 177 173
0.103113 0.002112 0.464841 238 184 177
0.054844 -0.011775 0.462408 219 163 157
0.142782 -0.012050 0.481714 206 151 151
0.357866 0.004975 0.527746 220 171 160
0.335045 0.012949 0.524176 237 185 182
0.490370 -0.038070 0.537298 235 179 173
0.295525 0.018842 0.514381 218 167 159
0.291346 0.010407 0.512869 238 188 184
0.290314 -0.020421 0.531298 230 176 169
0.318878 0.024249 0.514958 219 163 157
0.463039 -0.020202 0.537110 230 176 169
0.297214 0.000434 0.518476 242 192 190
0.362707 0.031426 0.524674 216 162 155
0.437054 -0.002313 0.529854 214 162 161
0.343315 0.005241 0.525175 235 185 179
0.070961 0.049402 0.445233 216 168 162
0.328307 0.002294 0.523316 225 169 172
0.346581 0.026994 0.519785 243 183 181
0.059002 0.018165 0.448153 220 163 160
0.326463 0.026334 0.515784 241 193 187
0.130979 -0.005402 0.476397 233 179 170
0.209102 0.001341 0.496614 244 189 187
0.164437 -0.018796 0.493032 228 174 167
0.306337 0.032950 0.510184 234 180 173
0.444817 -0.020397 0.545104 218 166 161
0.314800 0.020672 0.516030 234 185 176
0.245231 0.029442 0.500952 229 177 174
0.204657 -0.004539 0.498966 189 133 125
0.426228 0.002643 0.530166 234 178 172
0.155640 -0.041380 0.509132 231 180 172
0.342425 0.048462 0.518233 213 165 161
0.119749 -0.004482 0.470175 243 193 187
0.221246 0.017619 0.494998 232 187 182
0.332565 0.027291 0.515270 222 166 160
0.310076 0.006517 0.521271 209 159 153
0.447636 0.040728 0.524936 188 137 127
0.328927 -0.017416 0.537091 244 191 193
0.080341 0.049097 0.451505 192 139 127
0.470424 -0.030122 0.544608 208 157 149
0.152880 -0.010675 0.483991 223 173 167
0.332207 0.033397 0.516299 224 172 167
0.310982 -0.018766 0.536063 242 187 185
0.463716 -0.027621 0.543809 238 187 179
0.445850 0.036402 0.523380 239 189 185
0.434961 0.023153 0.529703 232 180 177
0.204802 0.008942 0.491825 230 176 169
0.190962 -0.018448 0.504411 225 170 166
0.331351 0.024495 0.516968 234 185 176
0.139409 -0.031672 0.495715 211 162 153
0.342771 -0.008963 0.532507 211 157 150
0.323918 0.031091 0.515118 219 164 160
0.383249 0.020215 0.530208 239 187 186
0.357169 0.002953 0.527160 238 182 174
0.058755 -0.008250 0.462215 221 159 157
0.349971 0.003061 0.525829 224 173 165
0.031009 -0.022960 0.466788 234 180 173
0.271329 0.005468 0.511654 240 185 183
0.301397 0.016025 0.514061 223 175 169
0.325028 0.039440 0.513859 227 173 164
0.280984 0.021093 0.507695 245 195 189
0.394825 0.030772 0.530291 227 179 173
0.441933 -0.006457 0.532947 189 138 128
0.344145 0.003328 0.526193 239 187 182
0.261218 0.029753 0.498417 239 187 186
0.067997 0.019257 0.450082 228 180 174
0.280611 -0.036567 0.542537 189 135 126
0.332891 0.004129 0.523727 243 186 183
0.043163 -0.000043 0.454327 226 170 164
0.278895 0.008424 0.513539 231 179 174
0.373586 0.014658 0.525850 223 168 164
0.380977 0.040568 0.528664 228 174 165
0.264107 0.016786 0.504795 235 185 183
0.315925 0.022852 0.514432 227 171 165
0.068094 -0.026478 0.471634 240 183 180
-0.004672 -0.047675 0.484689 220 171 162
0.316374 0.027878 0.515125 233 177 171
0.348463 0.015146 0.526139 226 175 165
0.056873 0.011000 0.448995 211 160 152
0.151843 0.026454 0.469439 237 182 180
0.083552 0.042252 0.449440 239 189 185
0.247026 0.028206 0.497330 244 192 191
0.176172 0.003124 0.485553 222 172 166
0.249125 0.020530 0.501889 228 177 169
0.295987 0.042438 0.505926 229 172 169
0.133337 0.029313 0.464315 234 180 173
0.060104 0.046678 0.441146 225 169 163
0.029357 -0.023175 0.465296 232 176 170
0.286663 0.014142 0.511497 232 180 175
0.075620 0.012860 0.453335 233 185 181
0.020867 -0.024175 0.464998 228 179 168
0.075364 0.039236 0.448447 231 181 177
0.353630 0.010384 0.532846 226 175 167
0.375992 0.029800 0.531118 224 174 168
0.118186 0.014885 0.462769 234 179 175
0.169942 -0.003415 0.485685 230 178 173
0.072509 0.050296 0.444503 227 171 165
0.454446 -0.021705 0.541367 250 198 197
0.141397 0.012411 0.470465 235 185 179
0.372696 0.021345 0.529761 232 178 171
0.322584 0.050872 0.512139 231 181 175
0.104156 0.012917 0.460832 218 167 159
0.111932 0.000520 0.464452 240 186 179
0.146814 0.014153 0.471649 218 167 159
0.335980 -0.018224 0.538769 216 162 155
0.089401 -0.013699 0.469382 221 167 158
0.284274 0.036024 0.504465 231 180 172
0.134353 0.042925 0.461401 192 138 131
0.118951 0.008673 0.465228 231 186 181
0.203869 -0.009840 0.500352 242 193 184
0.433817 0.013182 0.533183 217 166 158
0.321898 0.043625 0.512580 246 198 194
0.222779 0.018379 0.494073 232 175 172
0.112835 0.012012 0.462664 234 179 175
0.282589 0.015376 0.511900 223 170 172
0.218778 0.002930 0.495826 237 184 186
0.339907 0.015533 0.521177 221 166 162
0.103738 -0.028144 0.482620 216 165 166
0.273540 0.005375 0.515006 228 172 175
0.284363 0.034347 0.501920 203 157 157
0.232335 0.029226 0.495536 220 174 176
0.082696 -0.003712 0.458535 212 158 165
0.234346 0.021936 0.495299 208 156 151
0.095921 0.043872 0.452242 223 170 172
0.177710 0.039641 0.475272 232 185 176
0.282739 0.038555 0.506113 227 184 178
0.020507 0.043766 0.433311 240 185 185
0.019127 0.048460 0.431215 228 177 169
0.024390 0.029656 0.435619 201 149 146
0.233442 0.036357 0.495873 255 208 206
0.046302 0.011515 0.447550 220 169 170
-0.005235 0.002595 0.442542 245 193 192
0.073311 0.036070 0.447492 240 188 185
0.286051 0.046199 0.504218 236 187 178
0.125054 0.015451 0.464971 234 184 178
-0.027360 -0.035701 0.469017 231 178 180
0.289588 0.003380 0.513928 216 163 165
0.344122 0.053586 0.520591 238 188 186
0.309085 0.028021 0.515397 231 180 172
0.198725 0.007092 0.490303 240 192 190
0.203849 -0.001604 0.496515 237 189 187
0.272434 0.000584 0.514387 255 200 197
0.037458 -0.024739 0.467445 249 192 189
0.124720 0.041665 0.459731 239 187 186
0.264472 0.052064 0.498047 214 156 162
0.364287 -0.015942 0.546455 241 190 191
0.032949 -0.035254 0.472777 230 175 171
0.054258 -0.008926 0.460533 223 172 164
0.062348 0.028183 0.446335 240 185 181
0.206233 -0.027335 0.514847 216 165 166
0.245832 0.035276 0.494708 237 187 181
0.104080 0.015044 0.460539 231 176 174
0.277397 0.038560 0.503531 224 168 171
0.111767 0.038518 0.454731 239 184 180
0.383499 0.038153 0.532524 223 175 169
-0.013480 -0.021555 0.458604 245 185 183
0.108047 -0.019732 0.477093 194 142 137
0.212811 0.036527 0.483929 231 179 178
0.060672 0.048418 0.439825 238 183 183
0.013732 0.031636 0.435253 234 189 182
0.273995 0.040616 0.501918 239 189 187
0.040992 0.008978 0.450847 235 183 180
0.064601 0.025588 0.445567 232 181 182
0.079347 -0.024150 0.471976 231 180 181
0.206245 0.009073 0.489811 241 191 187
0.112877 -0.027890 0.485229 239 189 187
0.015199 -0.025364 0.464512 235 179 173
0.271046 0.024106 0.502247 229 178 170
0.299936 0.041779 0.506025 223 172 162
0.289647 0.036744 0.505896 245 195 189
0.265029 0.090025 0.516819 211 156 156
0.274543 0.017983 0.508007 236 185 186
0.032797 0.023937 0.440390 239 194 189
0.301913 0.055452 0.505803 221 165 159
0.015933 0.042897 0.432676 211 159 154
0.071589 0.029240 0.447175 245 185 183
0.125180 -0.024354 0.486865 239 182 181
-0.022053 -0.008776 0.449967 244 201 197
-0.017677 0.005355 0.441518 203 151 148
0.279879 0.038655 0.503901 229 178 170
-0.054635 -0.002763 0.441485 229 176 178
0.219120 0.036648 0.483975 237 188 189
-0.008179 -0.002006 0.446385 242 190 189
-0.029311 0.016522 0.435159 235 186 187
0.245671 0.032968 0.492898 225 171 164
-0.051304 -0.013774 0.449695 238 184 177
-0.015627 -0.017206 0.455271 230 178 177
0.265763 0.049977 0.495760 240 185 185
-0.024066 0.012144 0.436809 231 176 174
0.069819 0.055322 0.443571 233 185 179
0.160926 0.044203 0.469244 230 179 169
0.002026 0.003199 0.443939 230 179 171
0.239255 0.037864 0.491518 231 177 170
0.164776 0.042304 0.470929 234 179 179
0.093560 0.051419 0.452113 197 147 155
-0.040203 0.003046 0.439167 206 163 157
0.117957 0.016062 0.465092 250 200 196
0.086359 0.050627 0.448355 193 141 138
0.126057 0.036449 0.461029 218 164 157
0.020074 0.038750 0.433066 231 179 174
0.285665 0.000932 0.515816 237 187 181
-0.013831 0.017853 0.436783 226 179 168
-0.036504 -0.014186 0.452257 215 165 171
-0.031133 -0.044023 0.476915 232 180 177
-0.018461 -0.008994 0.447723 238 186 181
-0.010189 0.046148 0.427290 230 179 171
-0.002570 -0.008263 0.451330 235 180 180
0.202753 0.041779 0.479119 197 149 143
0.065898 0.038071 0.446116 241 191 187
0.052382 0.019417 0.445799 238 181 178
0.078646 0.035403 0.449775 214 163 155
-0.041342 0.007494 0.438121 236 188 182
0.044283 0.062198 0.435704 225 167 173
-0.002490 0.036583 0.428062 206 154 151
0.076666 -0.019521 0.471607 222 164 168
-0.022857 0.009804 0.437781 218 165 167
-0.034885 -0.001547 0.443881 242 190 185
0.204848 0.019771 0.486706 232 179 181
0.195935 0.045931 0.480485 233 188 185
0.166740 -0.038476 0.511641 238 184 177
-0.034047 0.014756 0.435499 225 177 171
0.157620 0.030260 0.471149 243 200 194
-0.016756 -0.011152 0.449913 239 189 183
-0.019144 -0.040757 0.473634 204 152 147
0.088031 0.054355 0.446963 229 173 167
0.078461 0.058275 0.446463 225 174 166
0.235714 0.035515 0.491720 190 136 129
0.031163 0.055455 0.431985 213 157 151
0.001353 0.033835 0.430375 227 179 175
0.009899 -0.053867 0.485184 242 192 190
0.070867 0.021142 0.449675 221 170 162
-0.038547 -0.030726 0.465240 230 181 172
0.182146 0.001507 0.484837 225 174 164
0.113578 0.043525 0.458020 225 169 172
0.035286 -0.025977 0.465432 237 189 187
-0.069896 -0.029461 0.461148 239 190 181
0.062063 0.041950 0.439399 219 162 159
-0.028308 -0.033286 0.467554 230 185 180
0.031865 -0.020665 0.464542 228 173 169
-0.022691 0.038740 0.424442 222 170 176
0.048246 0.047909 0.438950 232 182 180
0.071819 -0.027802 0.474901 231 186 181
-0.069839 0.010291 0.435423 233 171 169
0.129830 0.039579 0.456682 228 173 173
0.055045 -0.037280 0.481028 241 185 179
0.077663 0.014406 0.452732 225 175 169
0.036889 -0.007190 0.461823 240 189 181
0.053749 0.018847 0.448128 251 202 193
-0.114544 -0.029219 0.451332 217 167 165
-0.083385 0.004594 0.437626 236 176 174
0.152489 0.028871 0.466925 230 182 178
-0.091857 -0.024624 0.454248 241 191 185
0.089665 0.039942 0.453147 239 182 179
-0.053729 0.012441 0.433500 225 176 167
0.067562 -0.036440 0.480323 243 191 190
0.034743 0.041035 0.437693 236 189 180
0.266363 0.018402 0.505357 228 183 180
0.034358 0.037591 0.437660 239 191 185
-0.006922 0.014998 0.438898 234 187 176
0.053441 0.048240 0.439304 224 167 164
0.151813 0.052871 0.462207 224 172 167
0.190494 0.066735 0.479718 236 186 182
-0.001499 -0.015419 0.456522 234 186 184
0.023855 -0.021079 0.461898 236 185 177
-0.040470 -0.042237 0.477925 239 185 178
-0.030846 0.012232 0.438755 246 194 191
0.062561 0.020636 0.447111 236 179 180
-0.090382 -0.006414 0.440377 233 185 179
0.104554 0.057431 0.453042 186 123 119
0.082443 -0.016718 0.467905 236 185 186
0.154044 0.043167 0.464716 229 176 178
0.069240 0.052797 0.440651 247 199 197
-0.076652 -0.005983 0.443444 226 172 179
-0.071020 0.016248 0.430506 241 191 185
0.079582 0.055276 0.447582 236 180 174
-0.033259 -0.002067 0.443542 237 185 184
-0.098181 -0.017262 0.448654 224 174 168
0.043030 0.043562 0.437907 230 175 171
0.084468 0.024011 0.451264 247 196 188
0.030689 0.007088 0.447179 242 187 183
-0.025613 -0.042229 0.473919 235 180 176
0.105934 0.016191 0.459667 232 180 179
0.136544 0.048195 0.459040 230 170 168
-0.092599 0.024359 0.428796 210 158 166
-0.106241 -0.018652 0.445565 192 138 145
0.022361 0.053107 0.429235 245 191 184
0.216045 0.033585 0.481276 240 185 185
-0.040391 -0.018851 0.453951 255 214 206
-0.099563 -0.029977 0.459199 203 145 149
0.021937 0.044179 0.435008 243 200 196
0.203737 0.002114 0.492072 240 197 193
0.238865 0.032935 0.486516 248 198 194
0.194321 -0.002428 0.493618 248 188 186
-0.025725 -0.016335 0.452456 238 187 188
-0.077721 -0.001454 0.440018 235 181 174
-0.076922 -0.024535 0.457656 238 183 179
0.088689 -0.018703 0.472864 249 194 192
-0.065870 -0.014871 0.450107 228 177 169
0.136799 -0.014248 0.478331 253 196 193
-0.114614 -0.013117 0.443576 245 195 191
-0.013684 -0.027424 0.462355 250 198 195
0.011672 0.044314 0.427838 253 205 203
-0.015930 0.021388 0.434681 223 167 170
0.173399 0.063126 0.474098 226 180 180
0.110497 0.040445 0.451457 239 184 180
-0.072264 -0.020448 0.456423 228 180 178
-0.077829 0.002830 0.440144 233 176 184
0.203777 0.049377 0.481220 238 188 182
-0.065225 0.027228 0.425718 238 186 181
0.251837 0.034707 0.494421 236 188 182
0.122591 0.036608 0.457341 218 161 158
-0.074686 -0.016430 0.450528 225 171 164
-0.018476 0.023450 0.433574 230 180 176
-0.036486 -0.011399 0.450583 233 185 179
0.000069 0.007394 0.441391 249 193 187
-0.025819 0.009023 0.436062 240 189 181
-0.103184 0.015612 0.424257 251 201 197
-0.000851 -0.021702 0.460758 231 181 177
0.215176 0.039496 0.477535 243 192 184
0.014505 0.000937 0.448389 247 191 185
0.097405 0.038121 0.451103 223 167 170
0.249779 0.023531 0.496385 231 177 170
0.085272 0.043522 0.451793 231 181 179
0.044290 0.047852 0.435435 241 187 180
0.054535 0.067158 0.436663 227 177 175
0.027884 -0.020847 0.462653 236 184 181
0.066327 0.050325 0.439708 242 192 190
0.050908 0.045456 0.438155 234 179 179
-0.000277 0.019424 0.435429 242 191 192
0.181580 0.051146 0.473162 230 169 174
0.079401 0.028359 0.448507 235 178 177
0.065796 0.031764 0.449379 244 192 187
0.195590 0.033029 0.475848 255 197 197
0.016326 0.027832 0.437140 243 186 185
0.139500 0.048544 0.459579 206 158 170
0.214298 0.016027 0.490822 240 185 181
0.210581 0.043156 0.479629 218 168 164
0.122979 -0.002741 0.471517 216 162 173
-0.003851 0.003852 0.444642 249 197 194
-0.076258 -0.021426 0.455255 244 196 194
-0.093262 -0.000522 0.438899 233 175 179
-0.110216 -0.029240 0.457096 220 164 167
0.097455 0.046535 0.449427 214 162 168
-0.048150 0.000772 0.441228 225 167 171
-0.003588 0.052064 0.427333 242 190 185
-0.048807 -0.012073 0.446869 197 146 136
-0.098230 -0.002266 0.440434 235 179 184
-0.033989 0.015533 0.438717 235 180 178
-0.129650 -0.009331 0.427803 218 171 176
0.197974 0.039970 0.474281 232 182 178
-0.104192 -0.012614 0.443672 252 200 197
-0.006836 -0.000413 0.447423 238 188 182
-0.116560 0.013290 0.417152 242 187 187
-0.101895 -0.033607 0.457266 234 177 185
-0.097144 -0.012862 0.444454 228 172 175
0.119918 0.017748 0.460482 249 187 185
-0.020860 -0.008158 0.451362 230 181 172
0.062451 0.049332 0.437675 234 179 179
-0.094553 0.013077 0.433383 238 184 177
-0.128079 -0.026815 0.445215 230 179 182
-0.093078 -0.005605 0.441661 209 159 167
0.085164 0.058202 0.440066 242 187 185
-0.108992 -0.021411 0.446617 230 178 173
0.161818 0.045147 0.472311 239 187 186
0.018851 0.044907 0.430863 214 163 164
0.125048 0.045207 0.452610 247 199 197
-0.011525 -0.002900 0.447059 228 179 170
-0.068291 -0.011887 0.447284 218 159 168
0.021624 0.050962 0.426092 228 171 168
0.037497 0.037994 0.438289 239 188 180
0.094890 0.037602 0.450455 215 163 158
0.020457 0.055861 0.431703 219 168 160
-0.012963 0.015835 0.440335 231 173 179
0.035392 -0.022296 0.466338 229 178 168
0.112124 0.053389 0.449760 250 202 198
-0.003500 -0.023861 0.463612 242 187 187
-0.111642 0.008525 0.425016 234 185 186
-0.025434 0.042660 0.427713 235 180 180
-0.094806 -0.024324 0.455374 216 167 170
0.087870 0.044438 0.450690 212 157 157
-0.092165 -0.030624 0.457608 246 197 198
-0.073520 -0.031965 0.457703 192 138 131
-0.113378 0.023342 0.414090 235 187 181
0.002297 -0.043557 0.476344 241 186 182
-0.085601 -0.007144 0.443218 216 160 163
-0.094657 0.001946 0.439860 227 171 165
-0.062041 -0.004727 0.441841 245 190 190
-0.017453 -0.014065 0.451974 247 195 194
-0.101036 0.034778 0.417167 244 192 187
-0.126928 -0.041443 0.457160 242 188 181
0.026695 0.051465 0.431091 244 196 192
0.109417 0.043565 0.448487 245 195 193
-0.022118 0.010997 0.441398 242 194 190
-0.028635 0.016199 0.439908 249 199 193
0.170019 0.047503 0.461174 237 185 180
-0.011183 -0.046844 0.479426 227 182 175
-0.016951 0.031826 0.428085 234 178 172
0.000045 0.002379 0.442994 230 181 172
-0.105329 0.000267 0.434505 230 179 171
-0.102515 -0.017229 0.445082 240 188 185
0.063070 0.034908 0.445324 205 158 165
-0.141387 -0.028628 0.421041 232 175 176
-0.086971 -0.021272 0.451901 238 184 177
-0.073696 -0.025368 0.457425 250 200 196
0.021946 0.040657 0.434735 243 191 186
-0.093076 -0.018648 0.451658 235 185 179
-0.007121 0.036234 0.429052 233 178 174
-0.025340 -0.023907 0.464194 219 160 169
0.198872 -0.002051 0.495641 253 203 199
0.052185 -0.030497 0.472470 233 179 170
-0.060083 0.018650 0.430793 239 191 185
0.102669 0.036275 0.447875 212 167 171
0.126020 0.040318 0.454452 245 190 188
0.017070 0.002772 0.449255 244 196 194
-0.089084 -0.022056 0.450274 242 192 190
-0.097410 -0.028392 0.459161 219 166 168
-0.076290 -0.004040 0.444365 174 122 130
-0.107662 0.046380 0.409933 228 180 178
0.123044 0.061608 0.449670 206 154 151
-0.103589 0.083381 0.408310 223 172 185
0.023687 0.047068 0.428887 206 156 154
-0.121685 0.019651 0.417275 243 192 184
0.033039 0.025751 0.442012 226 173 175
-0.064682 -0.011381 0.446771 238 183 179
-0.130032 -0.018680 0.437349 226 168 172
0.070626 0.034721 0.438457 239 188 180
-0.069323 -0.018096 0.452979 230 179 171
0.151842 -0.010416 0.482753 238 188 182
0.135131 0.046644 0.452219 220 165 161
0.138249 -0.014242 0.483546 237 186 178
-0.104106 -0.025895 0.456714 223 170 174
-0.068580 -0.025780 0.457971 246 194 191
-0.091517 -0.008740 0.440989 244 190 183
